14422  28084 
3 681 678 677 
3 677 682 681 
3 683 682 677 
3 677 680 683 
3 684 685 670 
3 670 672 684 
3 685 686 666 
3 666 670 685 
3 672 651 687 
3 687 684 672 
3 654 688 687 
3 687 651 654 
3 661 663 689 
3 689 690 661 
3 689 663 666 
3 666 686 689 
3 691 688 654 
3 654 657 691 
3 691 657 661 
3 661 690 691 
3 685 684 676 
3 676 675 685 
3 686 685 675 
3 675 678 686 
3 684 687 679 
3 679 676 684 
3 688 680 679 
3 679 687 688 
3 682 690 689 
3 689 681 682 
3 689 686 678 
3 678 681 689 
3 680 688 691 
3 691 683 680 
3 690 682 683 
3 683 691 690 
3 692 693 694 
3 694 695 692 
3 656 655 693 
3 693 692 656 
3 696 697 692 
3 692 695 696 
3 697 659 656 
3 656 692 697 
3 698 697 696 
3 696 699 698 
3 662 659 697 
3 697 698 662 
3 698 699 700 
3 700 701 698 
3 662 698 701 
3 701 665 662 
3 701 700 702 
3 702 703 701 
3 701 703 668 
3 668 665 701 
3 703 702 704 
3 704 705 703 
3 668 703 705 
3 705 671 668 
3 705 704 706 
3 706 707 705 
3 705 707 674 
3 674 671 705 
3 694 693 707 
3 707 706 694 
3 674 707 693 
3 693 655 674 
3 708 709 710 
3 710 711 708 
3 710 712 713 
3 713 711 710 
3 714 715 710 
3 710 709 714 
3 710 715 716 
3 716 712 710 
3 704 717 718 
3 718 706 704 
3 702 719 717 
3 717 704 702 
3 720 694 706 
3 706 718 720 
3 695 694 720 
3 720 721 695 
3 722 700 699 
3 699 723 722 
3 702 700 722 
3 722 719 702 
3 695 721 724 
3 724 696 695 
3 724 723 699 
3 699 696 724 
3 717 708 711 
3 711 718 717 
3 708 717 719 
3 719 709 708 
3 713 720 718 
3 718 711 713 
3 721 720 713 
3 713 712 721 
3 722 723 715 
3 715 714 722 
3 709 719 722 
3 722 714 709 
3 724 721 712 
3 712 716 724 
3 723 724 716 
3 716 715 723 
3 725 726 727 
3 727 728 725 
3 726 729 730 
3 730 727 726 
3 731 728 727 
3 727 732 731 
3 732 727 730 
3 730 733 732 
3 734 735 731 
3 731 732 734 
3 732 733 736 
3 736 734 732 
3 734 737 738 
3 738 735 734 
3 736 739 737 
3 737 734 736 
3 737 740 741 
3 741 738 737 
3 742 740 737 
3 737 739 742 
3 743 741 740 
3 740 744 743 
3 742 745 744 
3 744 740 742 
3 743 744 746 
3 746 747 743 
3 748 746 744 
3 744 745 748 
3 725 747 746 
3 746 726 725 
3 726 746 748 
3 748 729 726 
3 749 750 751 
3 751 752 749 
3 749 752 753 
3 753 754 749 
3 755 756 750 
3 750 749 755 
3 757 755 749 
3 749 754 757 
3 743 747 758 
3 758 759 743 
3 759 760 741 
3 741 743 759 
3 747 725 761 
3 761 758 747 
3 728 762 761 
3 761 725 728 
3 763 764 735 
3 735 738 763 
3 738 741 760 
3 760 763 738 
3 762 728 731 
3 731 765 762 
3 735 764 765 
3 765 731 735 
3 759 758 752 
3 752 751 759 
3 751 750 760 
3 760 759 751 
3 758 761 753 
3 753 752 758 
3 753 761 762 
3 762 754 753 
3 763 756 755 
3 755 764 763 
3 760 750 756 
3 756 763 760 
3 765 757 754 
3 754 762 765 
3 764 755 757 
3 757 765 764 
3 766 767 768 
3 768 769 766 
3 769 768 730 
3 730 729 769 
3 770 771 768 
3 768 767 770 
3 771 733 730 
3 730 768 771 
3 772 771 770 
3 770 773 772 
3 736 733 771 
3 771 772 736 
3 772 773 774 
3 774 775 772 
3 775 739 736 
3 736 772 775 
3 775 774 776 
3 776 777 775 
3 742 739 775 
3 775 777 742 
3 778 779 777 
3 777 776 778 
3 779 745 742 
3 742 777 779 
3 780 779 778 
3 778 781 780 
3 779 780 748 
3 748 745 779 
3 766 769 780 
3 780 781 766 
3 748 780 769 
3 769 729 748 
3 782 783 784 
3 784 785 782 
3 786 785 784 
3 784 787 786 
3 788 784 783 
3 783 789 788 
3 790 787 784 
3 784 788 790 
3 781 778 791 
3 791 792 781 
3 791 778 776 
3 776 793 791 
3 794 766 781 
3 781 792 794 
3 767 766 794 
3 794 795 767 
3 773 796 797 
3 797 774 773 
3 774 797 793 
3 793 776 774 
3 795 798 770 
3 770 767 795 
3 798 796 773 
3 773 770 798 
3 791 782 785 
3 785 792 791 
3 793 783 782 
3 782 791 793 
3 792 785 786 
3 786 794 792 
3 786 787 795 
3 795 794 786 
3 788 789 797 
3 797 796 788 
3 789 783 793 
3 793 797 789 
3 798 795 787 
3 787 790 798 
3 790 788 796 
3 796 798 790 
3 799 800 801 
3 801 802 799 
3 803 799 802 
3 802 804 803 
3 799 805 806 
3 806 800 799 
3 807 805 799 
3 799 803 807 
3 808 806 805 
3 805 809 808 
3 807 810 809 
3 809 805 807 
3 809 811 812 
3 812 808 809 
3 810 813 811 
3 811 809 810 
3 811 814 815 
3 815 812 811 
3 813 816 814 
3 814 811 813 
3 817 818 815 
3 815 814 817 
3 817 814 816 
3 816 819 817 
3 818 817 820 
3 820 821 818 
3 822 820 817 
3 817 819 822 
3 802 801 821 
3 821 820 802 
3 820 822 804 
3 804 802 820 
3 823 824 825 
3 825 826 823 
3 826 827 828 
3 828 823 826 
3 829 830 824 
3 824 823 829 
3 823 828 831 
3 831 829 823 
3 832 818 821 
3 821 833 832 
3 834 815 818 
3 818 832 834 
3 833 821 801 
3 801 835 833 
3 800 836 835 
3 835 801 800 
3 808 812 837 
3 837 838 808 
3 834 837 812 
3 812 815 834 
3 839 836 800 
3 800 806 839 
3 806 808 838 
3 838 839 806 
3 833 826 825 
3 825 832 833 
3 825 824 834 
3 834 832 825 
3 833 835 827 
3 827 826 833 
3 827 835 836 
3 836 828 827 
3 838 837 830 
3 830 829 838 
3 830 837 834 
3 834 824 830 
3 831 828 836 
3 836 839 831 
3 838 829 831 
3 831 839 838 
3 840 841 842 
3 842 843 840 
3 841 840 803 
3 803 804 841 
3 840 843 844 
3 844 845 840 
3 840 845 807 
3 807 803 840 
3 846 847 845 
3 845 844 846 
3 847 810 807 
3 807 845 847 
3 847 846 848 
3 848 849 847 
3 849 813 810 
3 810 847 849 
3 850 851 849 
3 849 848 850 
3 851 816 813 
3 813 849 851 
3 850 852 853 
3 853 851 850 
3 816 851 853 
3 853 819 816 
3 854 853 852 
3 852 855 854 
3 822 819 853 
3 853 854 822 
3 841 854 855 
3 855 842 841 
3 804 822 854 
3 854 841 804 
3 856 857 858 
3 858 859 856 
3 857 856 860 
3 860 861 857 
3 862 856 859 
3 859 863 862 
3 856 862 864 
3 864 860 856 
3 855 852 865 
3 865 866 855 
3 852 850 867 
3 867 865 852 
3 866 868 842 
3 842 855 866 
3 868 869 843 
3 843 842 868 
3 870 848 846 
3 846 871 870 
3 848 870 867 
3 867 850 848 
3 843 869 872 
3 872 844 843 
3 871 846 844 
3 844 872 871 
3 858 857 866 
3 866 865 858 
3 858 865 867 
3 867 859 858 
3 866 857 861 
3 861 868 866 
3 861 860 869 
3 869 868 861 
3 871 862 863 
3 863 870 871 
3 863 859 867 
3 867 870 863 
3 869 860 864 
3 864 872 869 
3 864 862 871 
3 871 872 864 
3 873 874 875 
3 875 876 873 
3 876 877 878 
3 878 873 876 
3 879 874 873 
3 873 880 879 
3 881 880 873 
3 873 878 881 
3 880 882 883 
3 883 879 880 
3 882 880 881 
3 881 884 882 
3 882 885 886 
3 886 883 882 
3 884 887 885 
3 885 882 884 
3 885 888 889 
3 889 886 885 
3 888 885 887 
3 887 890 888 
3 891 892 889 
3 889 888 891 
3 891 888 890 
3 890 893 891 
3 892 891 894 
3 894 895 892 
3 894 891 893 
3 893 896 894 
3 895 894 876 
3 876 875 895 
3 894 896 877 
3 877 876 894 
3 897 898 899 
3 899 900 897 
3 898 901 902 
3 902 899 898 
3 900 899 903 
3 903 904 900 
3 905 903 899 
3 899 902 905 
3 895 906 907 
3 907 892 895 
3 892 907 908 
3 908 889 892 
3 875 909 906 
3 906 895 875 
3 909 875 874 
3 874 910 909 
3 883 886 911 
3 911 912 883 
3 886 889 908 
3 908 911 886 
3 913 910 874 
3 874 879 913 
3 912 913 879 
3 879 883 912 
3 906 898 897 
3 897 907 906 
3 897 900 908 
3 908 907 897 
3 901 898 906 
3 906 909 901 
3 910 902 901 
3 901 909 910 
3 912 911 904 
3 904 903 912 
3 908 900 904 
3 904 911 908 
3 905 902 910 
3 910 913 905 
3 905 913 912 
3 912 903 905 
3 914 915 916 
3 916 917 914 
3 917 916 878 
3 878 877 917 
3 918 919 916 
3 916 915 918 
3 916 919 881 
3 881 878 916 
3 920 921 919 
3 919 918 920 
3 881 919 921 
3 921 884 881 
3 922 923 921 
3 921 920 922 
3 884 921 923 
3 923 887 884 
3 923 922 924 
3 924 925 923 
3 887 923 925 
3 925 890 887 
3 924 926 927 
3 927 925 924 
3 890 925 927 
3 927 893 890 
3 928 927 926 
3 926 929 928 
3 896 893 927 
3 927 928 896 
3 929 914 917 
3 917 928 929 
3 928 917 877 
3 877 896 928 
3 930 931 932 
3 932 933 930 
3 934 935 931 
3 931 930 934 
3 936 930 933 
3 933 937 936 
3 938 934 930 
3 930 936 938 
3 939 940 929 
3 929 926 939 
3 941 939 926 
3 926 924 941 
3 940 942 914 
3 914 929 940 
3 942 943 915 
3 915 914 942 
3 920 944 945 
3 945 922 920 
3 945 941 924 
3 924 922 945 
3 946 918 915 
3 915 943 946 
3 918 946 944 
3 944 920 918 
3 932 931 940 
3 940 939 932 
3 932 939 941 
3 941 933 932 
3 935 942 940 
3 940 931 935 
3 943 942 935 
3 935 934 943 
3 944 936 937 
3 937 945 944 
3 937 933 941 
3 941 945 937 
3 943 934 938 
3 938 946 943 
3 938 936 944 
3 944 946 938 
3 947 948 949 
3 949 950 947 
3 951 947 950 
3 950 952 951 
3 953 948 947 
3 947 954 953 
3 955 954 947 
3 947 951 955 
3 954 956 957 
3 957 953 954 
3 956 954 955 
3 955 958 956 
3 959 957 956 
3 956 960 959 
3 960 956 958 
3 958 961 960 
3 960 962 963 
3 963 959 960 
3 961 964 962 
3 962 960 961 
3 963 962 965 
3 965 966 963 
3 964 967 965 
3 965 962 964 
3 968 969 966 
3 966 965 968 
3 968 965 967 
3 967 970 968 
3 968 950 949 
3 949 969 968 
3 970 952 950 
3 950 968 970 
3 971 972 973 
3 973 974 971 
3 974 975 976 
3 976 971 974 
3 972 971 977 
3 977 978 972 
3 979 977 971 
3 971 976 979 
3 969 980 981 
3 981 966 969 
3 966 981 982 
3 982 963 966 
3 980 969 949 
3 949 983 980 
3 948 984 983 
3 983 949 948 
3 957 959 985 
3 985 986 957 
3 982 985 959 
3 959 963 982 
3 948 953 987 
3 987 984 948 
3 986 987 953 
3 953 957 986 
3 973 981 980 
3 980 974 973 
3 973 972 982 
3 982 981 973 
3 980 983 975 
3 975 974 980 
3 984 976 975 
3 975 983 984 
3 978 977 986 
3 986 985 978 
3 982 972 978 
3 978 985 982 
3 984 987 979 
3 979 976 984 
3 986 977 979 
3 979 987 986 
3 988 989 990 
3 990 991 988 
3 951 952 989 
3 989 988 951 
3 992 993 988 
3 988 991 992 
3 955 951 988 
3 988 993 955 
3 993 992 994 
3 994 995 993 
3 958 955 993 
3 993 995 958 
3 996 997 995 
3 995 994 996 
3 958 995 997 
3 997 961 958 
3 997 996 998 
3 998 999 997 
3 961 997 999 
3 999 964 961 
3 998 1000 1001 
3 1001 999 998 
3 964 999 1001 
3 1001 967 964 
3 1000 1002 1003 
3 1003 1001 1000 
3 1003 970 967 
3 967 1001 1003 
3 990 989 1003 
3 1003 1002 990 
3 989 952 970 
3 970 1003 989 
3 1004 1005 1006 
3 1006 1007 1004 
3 1008 1009 1005 
3 1005 1004 1008 
3 1007 1010 1011 
3 1011 1004 1007 
3 1004 1011 1012 
3 1012 1008 1004 
3 1013 1014 1002 
3 1002 1000 1013 
3 1000 998 1015 
3 1015 1013 1000 
3 1014 1016 990 
3 990 1002 1014 
3 1016 1017 991 
3 991 990 1016 
3 994 1018 1019 
3 1019 996 994 
3 1019 1015 998 
3 998 996 1019 
3 991 1017 1020 
3 1020 992 991 
3 1018 994 992 
3 992 1020 1018 
3 1014 1013 1006 
3 1006 1005 1014 
3 1006 1013 1015 
3 1015 1007 1006 
3 1009 1016 1014 
3 1014 1005 1009 
3 1009 1008 1017 
3 1017 1016 1009 
3 1018 1011 1010 
3 1010 1019 1018 
3 1010 1007 1015 
3 1015 1019 1010 
3 1012 1020 1017 
3 1017 1008 1012 
3 1012 1011 1018 
3 1018 1020 1012 
3 1021 1022 1023 
3 1023 1024 1021 
3 1024 1025 1026 
3 1026 1021 1024 
3 1027 1022 1021 
3 1021 1028 1027 
3 1028 1021 1026 
3 1026 1029 1028 
3 1030 1031 1027 
3 1027 1028 1030 
3 1032 1030 1028 
3 1028 1029 1032 
3 1030 1033 1034 
3 1034 1031 1030 
3 1033 1030 1032 
3 1032 1035 1033 
3 1036 1034 1033 
3 1033 1037 1036 
3 1033 1035 1038 
3 1038 1037 1033 
3 1037 1039 1040 
3 1040 1036 1037 
3 1038 1041 1039 
3 1039 1037 1038 
3 1042 1040 1039 
3 1039 1043 1042 
3 1039 1041 1044 
3 1044 1043 1039 
3 1043 1024 1023 
3 1023 1042 1043 
3 1044 1025 1024 
3 1024 1043 1044 
3 1045 1046 1047 
3 1047 1048 1045 
3 1047 1049 1050 
3 1050 1048 1047 
3 1045 1048 1051 
3 1051 1052 1045 
3 1050 1053 1051 
3 1051 1048 1050 
3 1040 1042 1054 
3 1054 1055 1040 
3 1036 1040 1055 
3 1055 1056 1036 
3 1057 1054 1042 
3 1042 1023 1057 
3 1022 1058 1057 
3 1057 1023 1022 
3 1059 1060 1031 
3 1031 1034 1059 
3 1034 1036 1056 
3 1056 1059 1034 
3 1058 1022 1027 
3 1027 1061 1058 
3 1061 1027 1031 
3 1031 1060 1061 
3 1054 1047 1046 
3 1046 1055 1054 
3 1046 1045 1056 
3 1056 1055 1046 
3 1054 1057 1049 
3 1049 1047 1054 
3 1058 1050 1049 
3 1049 1057 1058 
3 1051 1060 1059 
3 1059 1052 1051 
3 1056 1045 1052 
3 1052 1059 1056 
3 1058 1061 1053 
3 1053 1050 1058 
3 1060 1051 1053 
3 1053 1061 1060 
3 1062 1063 1064 
3 1064 1065 1062 
3 1026 1025 1063 
3 1063 1062 1026 
3 1066 1067 1062 
3 1062 1065 1066 
3 1067 1029 1026 
3 1026 1062 1067 
3 1068 1067 1066 
3 1066 1069 1068 
3 1067 1068 1032 
3 1032 1029 1067 
3 1070 1071 1068 
3 1068 1069 1070 
3 1071 1035 1032 
3 1032 1068 1071 
3 1072 1073 1071 
3 1071 1070 1072 
3 1071 1073 1038 
3 1038 1035 1071 
3 1073 1072 1074 
3 1074 1075 1073 
3 1075 1041 1038 
3 1038 1073 1075 
3 1076 1075 1074 
3 1074 1077 1076 
3 1044 1041 1075 
3 1075 1076 1044 
3 1064 1063 1076 
3 1076 1077 1064 
3 1063 1025 1044 
3 1044 1076 1063 
3 1078 1079 1080 
3 1080 1081 1078 
3 1080 1079 1082 
3 1082 1083 1080 
3 1084 1079 1078 
3 1078 1085 1084 
3 1084 1086 1082 
3 1082 1079 1084 
3 1087 1077 1074 
3 1074 1088 1087 
3 1088 1074 1072 
3 1072 1089 1088 
3 1077 1087 1090 
3 1090 1064 1077 
3 1090 1091 1065 
3 1065 1064 1090 
3 1069 1092 1093 
3 1093 1070 1069 
3 1070 1093 1089 
3 1089 1072 1070 
3 1066 1065 1091 
3 1091 1094 1066 
3 1094 1092 1069 
3 1069 1066 1094 
3 1088 1081 1080 
3 1080 1087 1088 
3 1089 1078 1081 
3 1081 1088 1089 
3 1087 1080 1083 
3 1083 1090 1087 
3 1091 1090 1083 
3 1083 1082 1091 
3 1092 1084 1085 
3 1085 1093 1092 
3 1089 1093 1085 
3 1085 1078 1089 
3 1086 1094 1091 
3 1091 1082 1086 
3 1092 1094 1086 
3 1086 1084 1092 
3 1095 1096 1097 
3 1097 1098 1095 
3 1099 1095 1098 
3 1098 1100 1099 
3 1101 1096 1095 
3 1095 1102 1101 
3 1103 1102 1095 
3 1095 1099 1103 
3 1104 1101 1102 
3 1102 1105 1104 
3 1106 1105 1102 
3 1102 1103 1106 
3 1107 1104 1105 
3 1105 1108 1107 
3 1108 1105 1106 
3 1106 1109 1108 
3 1108 1110 1111 
3 1111 1107 1108 
3 1110 1108 1109 
3 1109 1112 1110 
3 1113 1111 1110 
3 1110 1114 1113 
3 1114 1110 1112 
3 1112 1115 1114 
3 1116 1117 1113 
3 1113 1114 1116 
3 1116 1114 1115 
3 1115 1118 1116 
3 1117 1116 1098 
3 1098 1097 1117 
3 1116 1118 1100 
3 1100 1098 1116 
3 1119 1120 1121 
3 1121 1122 1119 
3 1123 1121 1120 
3 1120 1124 1123 
3 1125 1126 1122 
3 1122 1121 1125 
3 1123 1127 1125 
3 1125 1121 1123 
3 1128 1113 1117 
3 1117 1129 1128 
3 1130 1111 1113 
3 1113 1128 1130 
3 1097 1131 1129 
3 1129 1117 1097 
3 1131 1097 1096 
3 1096 1132 1131 
3 1133 1134 1104 
3 1104 1107 1133 
3 1107 1111 1130 
3 1130 1133 1107 
3 1096 1101 1135 
3 1135 1132 1096 
3 1134 1135 1101 
3 1101 1104 1134 
3 1119 1128 1129 
3 1129 1120 1119 
3 1119 1122 1130 
3 1130 1128 1119 
3 1124 1120 1129 
3 1129 1131 1124 
3 1124 1131 1132 
3 1132 1123 1124 
3 1134 1133 1126 
3 1126 1125 1134 
3 1126 1133 1130 
3 1130 1122 1126 
3 1127 1123 1132 
3 1132 1135 1127 
3 1134 1125 1127 
3 1127 1135 1134 
3 1136 1137 1138 
3 1138 1139 1136 
3 1099 1100 1139 
3 1139 1138 1099 
3 1138 1137 1140 
3 1140 1141 1138 
3 1103 1099 1138 
3 1138 1141 1103 
3 1141 1140 1142 
3 1142 1143 1141 
3 1141 1143 1106 
3 1106 1103 1141 
3 1144 1145 1143 
3 1143 1142 1144 
3 1145 1109 1106 
3 1106 1143 1145 
3 1145 1144 1146 
3 1146 1147 1145 
3 1109 1145 1147 
3 1147 1112 1109 
3 1148 1147 1146 
3 1146 1149 1148 
3 1112 1147 1148 
3 1148 1115 1112 
3 1149 1150 1151 
3 1151 1148 1149 
3 1151 1118 1115 
3 1115 1148 1151 
3 1150 1136 1139 
3 1139 1151 1150 
3 1100 1118 1151 
3 1151 1139 1100 
3 1152 1153 1154 
3 1154 1155 1152 
3 1156 1157 1155 
3 1155 1154 1156 
3 1158 1154 1153 
3 1153 1159 1158 
3 1158 1160 1156 
3 1156 1154 1158 
3 1161 1162 1150 
3 1150 1149 1161 
3 1163 1161 1149 
3 1149 1146 1163 
3 1162 1164 1136 
3 1136 1150 1162 
3 1137 1136 1164 
3 1164 1165 1137 
3 1142 1166 1167 
3 1167 1144 1142 
3 1144 1167 1163 
3 1163 1146 1144 
3 1168 1140 1137 
3 1137 1165 1168 
3 1140 1168 1166 
3 1166 1142 1140 
3 1162 1161 1152 
3 1152 1155 1162 
3 1163 1153 1152 
3 1152 1161 1163 
3 1157 1164 1162 
3 1162 1155 1157 
3 1157 1156 1165 
3 1165 1164 1157 
3 1159 1167 1166 
3 1166 1158 1159 
3 1159 1153 1163 
3 1163 1167 1159 
3 1160 1168 1165 
3 1165 1156 1160 
3 1160 1158 1166 
3 1166 1168 1160 
3 1169 1170 1171 
3 1171 1172 1169 
3 1173 1171 1170 
3 1170 1174 1173 
3 1175 1176 1172 
3 1172 1171 1175 
3 1177 1175 1171 
3 1171 1173 1177 
3 1178 1179 1176 
3 1176 1175 1178 
3 1175 1177 1180 
3 1180 1178 1175 
3 1178 1181 1182 
3 1182 1179 1178 
3 1180 1183 1181 
3 1181 1178 1180 
3 1181 1184 1185 
3 1185 1182 1181 
3 1184 1181 1183 
3 1183 1186 1184 
3 1187 1185 1184 
3 1184 1188 1187 
3 1188 1184 1186 
3 1186 1189 1188 
3 1190 1191 1187 
3 1187 1188 1190 
3 1190 1188 1189 
3 1189 1192 1190 
3 1170 1169 1191 
3 1191 1190 1170 
3 1170 1190 1192 
3 1192 1174 1170 
3 1193 1194 1195 
3 1195 1196 1193 
3 1195 1197 1198 
3 1198 1196 1195 
3 1193 1196 1199 
3 1199 1200 1193 
3 1198 1201 1199 
3 1199 1196 1198 
3 1191 1202 1203 
3 1203 1187 1191 
3 1203 1204 1185 
3 1185 1187 1203 
3 1169 1205 1202 
3 1202 1191 1169 
3 1205 1169 1172 
3 1172 1206 1205 
3 1179 1182 1207 
3 1207 1208 1179 
3 1204 1207 1182 
3 1182 1185 1204 
3 1209 1206 1172 
3 1172 1176 1209 
3 1176 1179 1208 
3 1208 1209 1176 
3 1194 1203 1202 
3 1202 1195 1194 
3 1193 1204 1203 
3 1203 1194 1193 
3 1197 1195 1202 
3 1202 1205 1197 
3 1206 1198 1197 
3 1197 1205 1206 
3 1200 1199 1208 
3 1208 1207 1200 
3 1200 1207 1204 
3 1204 1193 1200 
3 1206 1209 1201 
3 1201 1198 1206 
3 1208 1199 1201 
3 1201 1209 1208 
3 1210 1211 1212 
3 1212 1213 1210 
3 1173 1174 1211 
3 1211 1210 1173 
3 1214 1210 1213 
3 1213 1215 1214 
3 1177 1173 1210 
3 1210 1214 1177 
3 1215 1216 1217 
3 1217 1214 1215 
3 1180 1177 1214 
3 1214 1217 1180 
3 1218 1219 1217 
3 1217 1216 1218 
3 1183 1180 1217 
3 1217 1219 1183 
3 1219 1218 1220 
3 1220 1221 1219 
3 1183 1219 1221 
3 1221 1186 1183 
3 1222 1223 1221 
3 1221 1220 1222 
3 1223 1189 1186 
3 1186 1221 1223 
3 1222 1224 1225 
3 1225 1223 1222 
3 1225 1192 1189 
3 1189 1223 1225 
3 1224 1212 1211 
3 1211 1225 1224 
3 1192 1225 1211 
3 1211 1174 1192 
3 1226 1227 1228 
3 1228 1229 1226 
3 1230 1231 1226 
3 1226 1229 1230 
3 1228 1232 1233 
3 1233 1229 1228 
3 1233 1234 1230 
3 1230 1229 1233 
3 1235 1236 1224 
3 1224 1222 1235 
3 1237 1235 1222 
3 1222 1220 1237 
3 1212 1224 1236 
3 1236 1238 1212 
3 1238 1239 1213 
3 1213 1212 1238 
3 1216 1240 1241 
3 1241 1218 1216 
3 1218 1241 1237 
3 1237 1220 1218 
3 1242 1215 1213 
3 1213 1239 1242 
3 1240 1216 1215 
3 1215 1242 1240 
3 1236 1235 1227 
3 1227 1226 1236 
3 1227 1235 1237 
3 1237 1228 1227 
3 1231 1238 1236 
3 1236 1226 1231 
3 1231 1230 1239 
3 1239 1238 1231 
3 1232 1241 1240 
3 1240 1233 1232 
3 1232 1228 1237 
3 1237 1241 1232 
3 1234 1242 1239 
3 1239 1230 1234 
3 1234 1233 1240 
3 1240 1242 1234 
3 1243 1244 1245 
3 1245 1246 1243 
3 1247 1245 1244 
3 1244 1248 1247 
3 1249 1250 1246 
3 1246 1245 1249 
3 1251 1249 1245 
3 1245 1247 1251 
3 1252 1253 1250 
3 1250 1249 1252 
3 1249 1251 1254 
3 1254 1252 1249 
3 1252 1255 1256 
3 1256 1253 1252 
3 1254 1257 1255 
3 1255 1252 1254 
3 1255 1258 1259 
3 1259 1256 1255 
3 1258 1255 1257 
3 1257 1260 1258 
3 1258 1261 1262 
3 1262 1259 1258 
3 1261 1258 1260 
3 1260 1263 1261 
3 1264 1265 1262 
3 1262 1261 1264 
3 1263 1266 1264 
3 1264 1261 1263 
3 1244 1243 1265 
3 1265 1264 1244 
3 1244 1264 1266 
3 1266 1248 1244 
3 1267 1268 1269 
3 1269 1270 1267 
3 1269 1271 1272 
3 1272 1270 1269 
3 1273 1274 1267 
3 1267 1270 1273 
3 1272 1275 1273 
3 1273 1270 1272 
3 1265 1276 1277 
3 1277 1262 1265 
3 1259 1262 1277 
3 1277 1278 1259 
3 1276 1265 1243 
3 1243 1279 1276 
3 1279 1243 1246 
3 1246 1280 1279 
3 1253 1256 1281 
3 1281 1282 1253 
3 1278 1281 1256 
3 1256 1259 1278 
3 1283 1280 1246 
3 1246 1250 1283 
3 1253 1282 1283 
3 1283 1250 1253 
3 1268 1277 1276 
3 1276 1269 1268 
3 1277 1268 1267 
3 1267 1278 1277 
3 1271 1269 1276 
3 1276 1279 1271 
3 1280 1272 1271 
3 1271 1279 1280 
3 1274 1273 1282 
3 1282 1281 1274 
3 1274 1281 1278 
3 1278 1267 1274 
3 1280 1283 1275 
3 1275 1272 1280 
3 1275 1283 1282 
3 1282 1273 1275 
3 1284 1285 1286 
3 1286 1287 1284 
3 1247 1248 1287 
3 1287 1286 1247 
3 1288 1286 1285 
3 1285 1289 1288 
3 1251 1247 1286 
3 1286 1288 1251 
3 1289 1290 1291 
3 1291 1288 1289 
3 1254 1251 1288 
3 1288 1291 1254 
3 1292 1293 1291 
3 1291 1290 1292 
3 1293 1257 1254 
3 1254 1291 1293 
3 1293 1292 1294 
3 1294 1295 1293 
3 1257 1293 1295 
3 1295 1260 1257 
3 1296 1297 1295 
3 1295 1294 1296 
3 1297 1263 1260 
3 1260 1295 1297 
3 1298 1297 1296 
3 1296 1299 1298 
3 1298 1266 1263 
3 1263 1297 1298 
3 1299 1284 1287 
3 1287 1298 1299 
3 1298 1287 1248 
3 1248 1266 1298 
3 1300 1301 1302 
3 1302 1303 1300 
3 1304 1305 1300 
3 1300 1303 1304 
3 1302 1306 1307 
3 1307 1303 1302 
3 1307 1308 1304 
3 1304 1303 1307 
3 1309 1310 1299 
3 1299 1296 1309 
3 1311 1309 1296 
3 1296 1294 1311 
3 1284 1299 1310 
3 1310 1312 1284 
3 1312 1313 1285 
3 1285 1284 1312 
3 1290 1314 1315 
3 1315 1292 1290 
3 1311 1294 1292 
3 1292 1315 1311 
3 1316 1289 1285 
3 1285 1313 1316 
3 1314 1290 1289 
3 1289 1316 1314 
3 1310 1309 1301 
3 1301 1300 1310 
3 1301 1309 1311 
3 1311 1302 1301 
3 1305 1312 1310 
3 1310 1300 1305 
3 1305 1304 1313 
3 1313 1312 1305 
3 1306 1315 1314 
3 1314 1307 1306 
3 1306 1302 1311 
3 1311 1315 1306 
3 1313 1304 1308 
3 1308 1316 1313 
3 1308 1307 1314 
3 1314 1316 1308 
3 1317 1318 1319 
3 1319 1320 1317 
3 1321 1319 1318 
3 1318 1322 1321 
3 1323 1324 1320 
3 1320 1319 1323 
3 1325 1323 1319 
3 1319 1321 1325 
3 1326 1327 1324 
3 1324 1323 1326 
3 1323 1325 1328 
3 1328 1326 1323 
3 1326 1329 1330 
3 1330 1327 1326 
3 1328 1331 1329 
3 1329 1326 1328 
3 1329 1332 1333 
3 1333 1330 1329 
3 1332 1329 1331 
3 1331 1334 1332 
3 1335 1333 1332 
3 1332 1336 1335 
3 1336 1332 1334 
3 1334 1337 1336 
3 1338 1339 1335 
3 1335 1336 1338 
3 1338 1336 1337 
3 1337 1340 1338 
3 1318 1317 1339 
3 1339 1338 1318 
3 1322 1318 1338 
3 1338 1340 1322 
3 1341 1342 1343 
3 1343 1344 1341 
3 1343 1345 1346 
3 1346 1344 1343 
3 1341 1344 1347 
3 1347 1348 1341 
3 1346 1349 1347 
3 1347 1344 1346 
3 1339 1350 1351 
3 1351 1335 1339 
3 1351 1352 1333 
3 1333 1335 1351 
3 1317 1353 1350 
3 1350 1339 1317 
3 1353 1317 1320 
3 1320 1354 1353 
3 1327 1330 1355 
3 1355 1356 1327 
3 1352 1355 1330 
3 1330 1333 1352 
3 1357 1354 1320 
3 1320 1324 1357 
3 1327 1356 1357 
3 1357 1324 1327 
3 1342 1351 1350 
3 1350 1343 1342 
3 1352 1351 1342 
3 1342 1341 1352 
3 1345 1343 1350 
3 1350 1353 1345 
3 1354 1346 1345 
3 1345 1353 1354 
3 1348 1347 1356 
3 1356 1355 1348 
3 1348 1355 1352 
3 1352 1341 1348 
3 1354 1357 1349 
3 1349 1346 1354 
3 1349 1357 1356 
3 1356 1347 1349 
3 1358 1359 1360 
3 1360 1361 1358 
3 1321 1322 1361 
3 1361 1360 1321 
3 1362 1360 1359 
3 1359 1363 1362 
3 1325 1321 1360 
3 1360 1362 1325 
3 1363 1364 1365 
3 1365 1362 1363 
3 1328 1325 1362 
3 1362 1365 1328 
3 1366 1367 1365 
3 1365 1364 1366 
3 1367 1331 1328 
3 1328 1365 1367 
3 1367 1366 1368 
3 1368 1369 1367 
3 1331 1367 1369 
3 1369 1334 1331 
3 1370 1371 1369 
3 1369 1368 1370 
3 1371 1337 1334 
3 1334 1369 1371 
3 1372 1371 1370 
3 1370 1373 1372 
3 1372 1340 1337 
3 1337 1371 1372 
3 1373 1358 1361 
3 1361 1372 1373 
3 1322 1340 1372 
3 1372 1361 1322 
3 1374 1375 1376 
3 1376 1377 1374 
3 1378 1379 1374 
3 1374 1377 1378 
3 1380 1377 1376 
3 1376 1381 1380 
3 1380 1382 1378 
3 1378 1377 1380 
3 1383 1384 1373 
3 1373 1370 1383 
3 1385 1383 1370 
3 1370 1368 1385 
3 1358 1373 1384 
3 1384 1386 1358 
3 1386 1387 1359 
3 1359 1358 1386 
3 1364 1388 1389 
3 1389 1366 1364 
3 1366 1389 1385 
3 1385 1368 1366 
3 1359 1387 1390 
3 1390 1363 1359 
3 1388 1364 1363 
3 1363 1390 1388 
3 1383 1375 1374 
3 1374 1384 1383 
3 1375 1383 1385 
3 1385 1376 1375 
3 1379 1386 1384 
3 1384 1374 1379 
3 1379 1378 1387 
3 1387 1386 1379 
3 1381 1389 1388 
3 1388 1380 1381 
3 1381 1376 1385 
3 1385 1389 1381 
3 1382 1390 1387 
3 1387 1378 1382 
3 1382 1380 1388 
3 1388 1390 1382 
3 1391 1392 1393 
3 1393 1394 1391 
3 1395 1393 1392 
3 1392 1396 1395 
3 1397 1398 1394 
3 1394 1393 1397 
3 1399 1397 1393 
3 1393 1395 1399 
3 1397 1400 1401 
3 1401 1398 1397 
3 1397 1399 1402 
3 1402 1400 1397 
3 1400 1403 1404 
3 1404 1401 1400 
3 1402 1405 1403 
3 1403 1400 1402 
3 1403 1406 1407 
3 1407 1404 1403 
3 1406 1403 1405 
3 1405 1408 1406 
3 1406 1409 1410 
3 1410 1407 1406 
3 1409 1406 1408 
3 1408 1411 1409 
3 1412 1413 1410 
3 1410 1409 1412 
3 1412 1409 1411 
3 1411 1414 1412 
3 1413 1412 1392 
3 1392 1391 1413 
3 1412 1414 1396 
3 1396 1392 1412 
3 1415 1416 1417 
3 1417 1418 1415 
3 1417 1419 1420 
3 1420 1418 1417 
3 1415 1418 1421 
3 1421 1422 1415 
3 1420 1423 1421 
3 1421 1418 1420 
3 1413 1424 1425 
3 1425 1410 1413 
3 1426 1407 1410 
3 1410 1425 1426 
3 1391 1427 1424 
3 1424 1413 1391 
3 1427 1391 1394 
3 1394 1428 1427 
3 1401 1404 1429 
3 1429 1430 1401 
3 1429 1404 1407 
3 1407 1426 1429 
3 1431 1428 1394 
3 1394 1398 1431 
3 1401 1430 1431 
3 1431 1398 1401 
3 1416 1425 1424 
3 1424 1417 1416 
3 1426 1425 1416 
3 1416 1415 1426 
3 1424 1427 1419 
3 1419 1417 1424 
3 1428 1420 1419 
3 1419 1427 1428 
3 1430 1429 1422 
3 1422 1421 1430 
3 1422 1429 1426 
3 1426 1415 1422 
3 1428 1431 1423 
3 1423 1420 1428 
3 1430 1421 1423 
3 1423 1431 1430 
3 1432 1433 1434 
3 1434 1435 1432 
3 1395 1396 1435 
3 1435 1434 1395 
3 1433 1436 1437 
3 1437 1434 1433 
3 1399 1395 1434 
3 1434 1437 1399 
3 1437 1436 1438 
3 1438 1439 1437 
3 1402 1399 1437 
3 1437 1439 1402 
3 1440 1441 1439 
3 1439 1438 1440 
3 1402 1439 1441 
3 1441 1405 1402 
3 1441 1440 1442 
3 1442 1443 1441 
3 1405 1441 1443 
3 1443 1408 1405 
3 1444 1445 1443 
3 1443 1442 1444 
3 1445 1411 1408 
3 1408 1443 1445 
3 1446 1445 1444 
3 1444 1447 1446 
3 1446 1414 1411 
3 1411 1445 1446 
3 1447 1432 1435 
3 1435 1446 1447 
3 1396 1414 1446 
3 1446 1435 1396 
3 1448 1449 1450 
3 1450 1451 1448 
3 1452 1453 1448 
3 1448 1451 1452 
3 1454 1451 1450 
3 1450 1455 1454 
3 1454 1456 1452 
3 1452 1451 1454 
3 1457 1458 1447 
3 1447 1444 1457 
3 1459 1457 1444 
3 1444 1442 1459 
3 1432 1447 1458 
3 1458 1460 1432 
3 1460 1461 1433 
3 1433 1432 1460 
3 1438 1462 1463 
3 1463 1440 1438 
3 1440 1463 1459 
3 1459 1442 1440 
3 1464 1436 1433 
3 1433 1461 1464 
3 1462 1438 1436 
3 1436 1464 1462 
3 1449 1448 1458 
3 1458 1457 1449 
3 1449 1457 1459 
3 1459 1450 1449 
3 1453 1460 1458 
3 1458 1448 1453 
3 1453 1452 1461 
3 1461 1460 1453 
3 1455 1463 1462 
3 1462 1454 1455 
3 1455 1450 1459 
3 1459 1463 1455 
3 1456 1464 1461 
3 1461 1452 1456 
3 1456 1454 1462 
3 1462 1464 1456 
3 1465 1466 1467 
3 1467 1468 1465 
3 1469 1467 1466 
3 1466 1470 1469 
3 1471 1472 1468 
3 1468 1467 1471 
3 1473 1471 1467 
3 1467 1469 1473 
3 1471 1474 1475 
3 1475 1472 1471 
3 1471 1473 1476 
3 1476 1474 1471 
3 1474 1477 1478 
3 1478 1475 1474 
3 1476 1479 1477 
3 1477 1474 1476 
3 1477 1480 1481 
3 1481 1478 1477 
3 1480 1477 1479 
3 1479 1482 1480 
3 1483 1481 1480 
3 1480 1484 1483 
3 1484 1480 1482 
3 1482 1485 1484 
3 1486 1487 1483 
3 1483 1484 1486 
3 1486 1484 1485 
3 1485 1488 1486 
3 1466 1465 1487 
3 1487 1486 1466 
3 1486 1488 1470 
3 1470 1466 1486 
3 1489 1490 1491 
3 1491 1492 1489 
3 1491 1493 1494 
3 1494 1492 1491 
3 1489 1492 1495 
3 1495 1496 1489 
3 1494 1497 1495 
3 1495 1492 1494 
3 1487 1498 1499 
3 1499 1483 1487 
3 1500 1481 1483 
3 1483 1499 1500 
3 1465 1501 1498 
3 1498 1487 1465 
3 1501 1465 1468 
3 1468 1502 1501 
3 1475 1478 1503 
3 1503 1504 1475 
3 1500 1503 1478 
3 1478 1481 1500 
3 1505 1502 1468 
3 1468 1472 1505 
3 1504 1505 1472 
3 1472 1475 1504 
3 1490 1499 1498 
3 1498 1491 1490 
3 1500 1499 1490 
3 1490 1489 1500 
3 1498 1501 1493 
3 1493 1491 1498 
3 1502 1494 1493 
3 1493 1501 1502 
3 1504 1503 1496 
3 1496 1495 1504 
3 1496 1503 1500 
3 1500 1489 1496 
3 1502 1505 1497 
3 1497 1494 1502 
3 1504 1495 1497 
3 1497 1505 1504 
3 1506 1507 1508 
3 1508 1509 1506 
3 1469 1470 1509 
3 1509 1508 1469 
3 1507 1510 1511 
3 1511 1508 1507 
3 1473 1469 1508 
3 1508 1511 1473 
3 1511 1510 1512 
3 1512 1513 1511 
3 1476 1473 1511 
3 1511 1513 1476 
3 1514 1515 1513 
3 1513 1512 1514 
3 1476 1513 1515 
3 1515 1479 1476 
3 1515 1514 1516 
3 1516 1517 1515 
3 1479 1515 1517 
3 1517 1482 1479 
3 1518 1519 1517 
3 1517 1516 1518 
3 1519 1485 1482 
3 1482 1517 1519 
3 1520 1519 1518 
3 1518 1521 1520 
3 1520 1488 1485 
3 1485 1519 1520 
3 1521 1506 1509 
3 1509 1520 1521 
3 1470 1488 1520 
3 1520 1509 1470 
3 1522 1523 1524 
3 1524 1525 1522 
3 1522 1525 1526 
3 1526 1527 1522 
3 1528 1525 1524 
3 1524 1529 1528 
3 1528 1530 1526 
3 1526 1525 1528 
3 1531 1532 1521 
3 1521 1518 1531 
3 1533 1531 1518 
3 1518 1516 1533 
3 1506 1521 1532 
3 1532 1534 1506 
3 1534 1535 1507 
3 1507 1506 1534 
3 1512 1536 1537 
3 1537 1514 1512 
3 1533 1516 1514 
3 1514 1537 1533 
3 1538 1510 1507 
3 1507 1535 1538 
3 1536 1512 1510 
3 1510 1538 1536 
3 1532 1531 1523 
3 1523 1522 1532 
3 1523 1531 1533 
3 1533 1524 1523 
3 1527 1534 1532 
3 1532 1522 1527 
3 1527 1526 1535 
3 1535 1534 1527 
3 1529 1537 1536 
3 1536 1528 1529 
3 1529 1524 1533 
3 1533 1537 1529 
3 1530 1538 1535 
3 1535 1526 1530 
3 1530 1528 1536 
3 1536 1538 1530 
3 1539 1540 1541 
3 1541 1542 1539 
3 1543 1541 1540 
3 1540 1544 1543 
3 1542 1541 1545 
3 1545 1546 1542 
3 1547 1545 1541 
3 1541 1543 1547 
3 1545 1548 1549 
3 1549 1546 1545 
3 1545 1547 1550 
3 1550 1548 1545 
3 1548 1551 1552 
3 1552 1549 1548 
3 1550 1553 1551 
3 1551 1548 1550 
3 1551 1554 1555 
3 1555 1552 1551 
3 1554 1551 1553 
3 1553 1556 1554 
3 1557 1555 1554 
3 1554 1558 1557 
3 1558 1554 1556 
3 1556 1559 1558 
3 1560 1561 1557 
3 1557 1558 1560 
3 1560 1558 1559 
3 1559 1562 1560 
3 1540 1539 1561 
3 1561 1560 1540 
3 1560 1562 1544 
3 1544 1540 1560 
3 1563 1564 1565 
3 1565 1566 1563 
3 1566 1567 1568 
3 1568 1563 1566 
3 1564 1563 1569 
3 1569 1570 1564 
3 1568 1571 1569 
3 1569 1563 1568 
3 1561 1572 1573 
3 1573 1557 1561 
3 1557 1573 1574 
3 1574 1555 1557 
3 1539 1575 1572 
3 1572 1561 1539 
3 1575 1539 1542 
3 1542 1576 1575 
3 1549 1552 1577 
3 1577 1578 1549 
3 1574 1577 1552 
3 1552 1555 1574 
3 1579 1576 1542 
3 1542 1546 1579 
3 1546 1549 1578 
3 1578 1579 1546 
3 1565 1573 1572 
3 1572 1566 1565 
3 1574 1573 1565 
3 1565 1564 1574 
3 1572 1575 1567 
3 1567 1566 1572 
3 1576 1568 1567 
3 1567 1575 1576 
3 1578 1577 1570 
3 1570 1569 1578 
3 1570 1577 1574 
3 1574 1564 1570 
3 1576 1579 1571 
3 1571 1568 1576 
3 1578 1569 1571 
3 1571 1579 1578 
3 1580 1581 1582 
3 1582 1583 1580 
3 1543 1544 1583 
3 1583 1582 1543 
3 1584 1585 1582 
3 1582 1581 1584 
3 1547 1543 1582 
3 1582 1585 1547 
3 1585 1584 1586 
3 1586 1587 1585 
3 1550 1547 1585 
3 1585 1587 1550 
3 1588 1589 1587 
3 1587 1586 1588 
3 1550 1587 1589 
3 1589 1553 1550 
3 1589 1588 1590 
3 1590 1591 1589 
3 1553 1589 1591 
3 1591 1556 1553 
3 1592 1593 1591 
3 1591 1590 1592 
3 1593 1559 1556 
3 1556 1591 1593 
3 1594 1593 1592 
3 1592 1595 1594 
3 1594 1562 1559 
3 1559 1593 1594 
3 1595 1580 1583 
3 1583 1594 1595 
3 1544 1562 1594 
3 1594 1583 1544 
3 1596 1597 1598 
3 1598 1599 1596 
3 1600 1601 1599 
3 1599 1598 1600 
3 1597 1602 1603 
3 1603 1598 1597 
3 1603 1604 1600 
3 1600 1598 1603 
3 1605 1606 1595 
3 1595 1592 1605 
3 1607 1605 1592 
3 1592 1590 1607 
3 1580 1595 1606 
3 1606 1608 1580 
3 1608 1609 1581 
3 1581 1580 1608 
3 1586 1610 1611 
3 1611 1588 1586 
3 1588 1611 1607 
3 1607 1590 1588 
3 1581 1609 1612 
3 1612 1584 1581 
3 1610 1586 1584 
3 1584 1612 1610 
3 1606 1605 1596 
3 1596 1599 1606 
3 1596 1605 1607 
3 1607 1597 1596 
3 1601 1608 1606 
3 1606 1599 1601 
3 1601 1600 1609 
3 1609 1608 1601 
3 1602 1611 1610 
3 1610 1603 1602 
3 1602 1597 1607 
3 1607 1611 1602 
3 1604 1612 1609 
3 1609 1600 1604 
3 1604 1603 1610 
3 1610 1612 1604 
3 1613 1614 1615 
3 1615 1616 1613 
3 1617 1615 1614 
3 1614 1618 1617 
3 1619 1620 1616 
3 1616 1615 1619 
3 1621 1619 1615 
3 1615 1617 1621 
3 1622 1623 1620 
3 1620 1619 1622 
3 1619 1621 1624 
3 1624 1622 1619 
3 1622 1625 1626 
3 1626 1623 1622 
3 1624 1627 1625 
3 1625 1622 1624 
3 1625 1628 1629 
3 1629 1626 1625 
3 1628 1625 1627 
3 1627 1630 1628 
3 1628 1631 1632 
3 1632 1629 1628 
3 1631 1628 1630 
3 1630 1633 1631 
3 1634 1635 1632 
3 1632 1631 1634 
3 1633 1636 1634 
3 1634 1631 1633 
3 1614 1613 1635 
3 1635 1634 1614 
3 1614 1634 1636 
3 1636 1618 1614 
3 1637 1638 1639 
3 1639 1640 1637 
3 1639 1641 1642 
3 1642 1640 1639 
3 1637 1640 1643 
3 1643 1644 1637 
3 1642 1645 1643 
3 1643 1640 1642 
3 1635 1646 1647 
3 1647 1632 1635 
3 1632 1647 1648 
3 1648 1629 1632 
3 1613 1649 1646 
3 1646 1635 1613 
3 1649 1613 1616 
3 1616 1650 1649 
3 1623 1626 1651 
3 1651 1652 1623 
3 1648 1651 1626 
3 1626 1629 1648 
3 1653 1650 1616 
3 1616 1620 1653 
3 1652 1653 1620 
3 1620 1623 1652 
3 1638 1647 1646 
3 1646 1639 1638 
3 1637 1648 1647 
3 1647 1638 1637 
3 1641 1639 1646 
3 1646 1649 1641 
3 1650 1642 1641 
3 1641 1649 1650 
3 1644 1643 1652 
3 1652 1651 1644 
3 1644 1651 1648 
3 1648 1637 1644 
3 1650 1653 1645 
3 1645 1642 1650 
3 1653 1652 1643 
3 1643 1645 1653 
3 1654 1655 1656 
3 1656 1657 1654 
3 1617 1618 1655 
3 1655 1654 1617 
3 1657 1658 1659 
3 1659 1654 1657 
3 1621 1617 1654 
3 1654 1659 1621 
3 1660 1659 1658 
3 1658 1661 1660 
3 1624 1621 1659 
3 1659 1660 1624 
3 1662 1663 1660 
3 1660 1661 1662 
3 1663 1627 1624 
3 1624 1660 1663 
3 1663 1662 1664 
3 1664 1665 1663 
3 1627 1663 1665 
3 1665 1630 1627 
3 1666 1667 1665 
3 1665 1664 1666 
3 1667 1633 1630 
3 1630 1665 1667 
3 1668 1667 1666 
3 1666 1669 1668 
3 1668 1636 1633 
3 1633 1667 1668 
3 1655 1668 1669 
3 1669 1656 1655 
3 1636 1668 1655 
3 1655 1618 1636 
3 1670 1671 1672 
3 1672 1673 1670 
3 1670 1673 1674 
3 1674 1675 1670 
3 1676 1673 1672 
3 1672 1677 1676 
3 1676 1678 1674 
3 1674 1673 1676 
3 1679 1680 1669 
3 1669 1666 1679 
3 1681 1679 1666 
3 1666 1664 1681 
3 1656 1669 1680 
3 1680 1682 1656 
3 1682 1683 1657 
3 1657 1656 1682 
3 1661 1684 1685 
3 1685 1662 1661 
3 1685 1681 1664 
3 1664 1662 1685 
3 1657 1683 1686 
3 1686 1658 1657 
3 1684 1661 1658 
3 1658 1686 1684 
3 1680 1679 1671 
3 1671 1670 1680 
3 1671 1679 1681 
3 1681 1672 1671 
3 1675 1682 1680 
3 1680 1670 1675 
3 1675 1674 1683 
3 1683 1682 1675 
3 1677 1685 1684 
3 1684 1676 1677 
3 1677 1672 1681 
3 1681 1685 1677 
3 1678 1686 1683 
3 1683 1674 1678 
3 1678 1676 1684 
3 1684 1686 1678 
3 1687 1688 1689 
3 1689 1690 1687 
3 1691 1689 1688 
3 1688 1692 1691 
3 1693 1694 1690 
3 1690 1689 1693 
3 1695 1693 1689 
3 1689 1691 1695 
3 1696 1697 1694 
3 1694 1693 1696 
3 1693 1695 1698 
3 1698 1696 1693 
3 1699 1700 1697 
3 1697 1696 1699 
3 1696 1698 1701 
3 1701 1699 1696 
3 1699 1702 1703 
3 1703 1700 1699 
3 1702 1699 1701 
3 1701 1704 1702 
3 1705 1703 1702 
3 1702 1706 1705 
3 1706 1702 1704 
3 1704 1707 1706 
3 1706 1708 1709 
3 1709 1705 1706 
3 1708 1706 1707 
3 1707 1710 1708 
3 1687 1709 1708 
3 1708 1688 1687 
3 1688 1708 1710 
3 1710 1692 1688 
3 1711 1712 1713 
3 1713 1714 1711 
3 1713 1715 1716 
3 1716 1714 1713 
3 1711 1714 1717 
3 1717 1718 1711 
3 1716 1719 1717 
3 1717 1714 1716 
3 1720 1721 1705 
3 1705 1709 1720 
3 1721 1722 1703 
3 1703 1705 1721 
3 1687 1723 1720 
3 1720 1709 1687 
3 1723 1687 1690 
3 1690 1724 1723 
3 1697 1700 1725 
3 1725 1726 1697 
3 1722 1725 1700 
3 1700 1703 1722 
3 1694 1727 1724 
3 1724 1690 1694 
3 1697 1726 1727 
3 1727 1694 1697 
3 1712 1721 1720 
3 1720 1713 1712 
3 1722 1721 1712 
3 1712 1711 1722 
3 1720 1723 1715 
3 1715 1713 1720 
3 1724 1716 1715 
3 1715 1723 1724 
3 1726 1725 1718 
3 1718 1717 1726 
3 1718 1725 1722 
3 1722 1711 1718 
3 1724 1727 1719 
3 1719 1716 1724 
3 1726 1717 1719 
3 1719 1727 1726 
3 1728 1729 1730 
3 1730 1731 1728 
3 1691 1692 1731 
3 1731 1730 1691 
3 1729 1732 1733 
3 1733 1730 1729 
3 1695 1691 1730 
3 1730 1733 1695 
3 1734 1733 1732 
3 1732 1735 1734 
3 1698 1695 1733 
3 1733 1734 1698 
3 1735 1736 1737 
3 1737 1734 1735 
3 1701 1698 1734 
3 1734 1737 1701 
3 1737 1736 1738 
3 1738 1739 1737 
3 1701 1737 1739 
3 1739 1704 1701 
3 1740 1741 1739 
3 1739 1738 1740 
3 1741 1707 1704 
3 1704 1739 1741 
3 1741 1740 1742 
3 1742 1743 1741 
3 1743 1710 1707 
3 1707 1741 1743 
3 1728 1731 1743 
3 1743 1742 1728 
3 1710 1743 1731 
3 1731 1692 1710 
3 1744 1745 1746 
3 1746 1747 1744 
3 1748 1749 1744 
3 1744 1747 1748 
3 1750 1747 1746 
3 1746 1751 1750 
3 1750 1752 1748 
3 1748 1747 1750 
3 1753 1754 1742 
3 1742 1740 1753 
3 1738 1755 1753 
3 1753 1740 1738 
3 1754 1756 1728 
3 1728 1742 1754 
3 1756 1757 1729 
3 1729 1728 1756 
3 1735 1758 1759 
3 1759 1736 1735 
3 1736 1759 1755 
3 1755 1738 1736 
3 1729 1757 1760 
3 1760 1732 1729 
3 1758 1735 1732 
3 1732 1760 1758 
3 1744 1754 1753 
3 1753 1745 1744 
3 1745 1753 1755 
3 1755 1746 1745 
3 1749 1756 1754 
3 1754 1744 1749 
3 1749 1748 1757 
3 1757 1756 1749 
3 1751 1759 1758 
3 1758 1750 1751 
3 1751 1746 1755 
3 1755 1759 1751 
3 1748 1752 1760 
3 1760 1757 1748 
3 1752 1750 1758 
3 1758 1760 1752 
3 1761 1762 1763 
3 1763 1764 1761 
3 1765 1761 1764 
3 1764 1766 1765 
3 1767 1762 1761 
3 1761 1768 1767 
3 1769 1768 1761 
3 1761 1765 1769 
3 1768 1770 1771 
3 1771 1767 1768 
3 1768 1769 1772 
3 1772 1770 1768 
3 1770 1773 1774 
3 1774 1771 1770 
3 1772 1775 1773 
3 1773 1770 1772 
3 1773 1776 1777 
3 1777 1774 1773 
3 1776 1773 1775 
3 1775 1778 1776 
3 1777 1776 1779 
3 1779 1780 1777 
3 1779 1776 1778 
3 1778 1781 1779 
3 1782 1783 1780 
3 1780 1779 1782 
3 1782 1779 1781 
3 1781 1784 1782 
3 1783 1782 1764 
3 1764 1763 1783 
3 1782 1784 1766 
3 1766 1764 1782 
3 1785 1786 1787 
3 1787 1788 1785 
3 1788 1789 1790 
3 1790 1785 1788 
3 1786 1785 1791 
3 1791 1792 1786 
3 1793 1791 1785 
3 1785 1790 1793 
3 1783 1794 1795 
3 1795 1780 1783 
3 1780 1795 1796 
3 1796 1777 1780 
3 1763 1797 1794 
3 1794 1783 1763 
3 1797 1763 1762 
3 1762 1798 1797 
3 1799 1800 1771 
3 1771 1774 1799 
3 1774 1777 1796 
3 1796 1799 1774 
3 1767 1801 1798 
3 1798 1762 1767 
3 1767 1771 1800 
3 1800 1801 1767 
3 1787 1795 1794 
3 1794 1788 1787 
3 1786 1796 1795 
3 1795 1787 1786 
3 1797 1789 1788 
3 1788 1794 1797 
3 1798 1790 1789 
3 1789 1797 1798 
3 1800 1799 1792 
3 1792 1791 1800 
3 1792 1799 1796 
3 1796 1786 1792 
3 1798 1801 1793 
3 1793 1790 1798 
3 1801 1800 1791 
3 1791 1793 1801 
3 1802 1803 1804 
3 1804 1805 1802 
3 1765 1766 1803 
3 1803 1802 1765 
3 1802 1805 1806 
3 1806 1807 1802 
3 1769 1765 1802 
3 1802 1807 1769 
3 1807 1806 1808 
3 1808 1809 1807 
3 1772 1769 1807 
3 1807 1809 1772 
3 1810 1811 1809 
3 1809 1808 1810 
3 1811 1775 1772 
3 1772 1809 1811 
3 1811 1810 1812 
3 1812 1813 1811 
3 1775 1811 1813 
3 1813 1778 1775 
3 1812 1814 1815 
3 1815 1813 1812 
3 1815 1781 1778 
3 1778 1813 1815 
3 1816 1815 1814 
3 1814 1817 1816 
3 1816 1784 1781 
3 1781 1815 1816 
3 1816 1817 1804 
3 1804 1803 1816 
3 1766 1784 1816 
3 1816 1803 1766 
3 1818 1819 1820 
3 1820 1821 1818 
3 1818 1821 1822 
3 1822 1823 1818 
3 1824 1821 1820 
3 1820 1825 1824 
3 1824 1826 1822 
3 1822 1821 1824 
3 1827 1828 1817 
3 1817 1814 1827 
3 1829 1827 1814 
3 1814 1812 1829 
3 1804 1817 1828 
3 1828 1830 1804 
3 1830 1831 1805 
3 1805 1804 1830 
3 1832 1810 1808 
3 1808 1833 1832 
3 1810 1832 1829 
3 1829 1812 1810 
3 1834 1806 1805 
3 1805 1831 1834 
3 1833 1808 1806 
3 1806 1834 1833 
3 1828 1827 1819 
3 1819 1818 1828 
3 1819 1827 1829 
3 1829 1820 1819 
3 1823 1830 1828 
3 1828 1818 1823 
3 1823 1822 1831 
3 1831 1830 1823 
3 1825 1832 1833 
3 1833 1824 1825 
3 1825 1820 1829 
3 1829 1832 1825 
3 1831 1822 1826 
3 1826 1834 1831 
3 1826 1824 1833 
3 1833 1834 1826 
3 1835 1836 1837 
3 1837 1838 1835 
3 1839 1837 1836 
3 1836 1840 1839 
3 1841 1842 1838 
3 1838 1837 1841 
3 1843 1841 1837 
3 1837 1839 1843 
3 1844 1845 1842 
3 1842 1841 1844 
3 1841 1843 1846 
3 1846 1844 1841 
3 1844 1847 1848 
3 1848 1845 1844 
3 1846 1849 1847 
3 1847 1844 1846 
3 1847 1850 1851 
3 1851 1848 1847 
3 1850 1847 1849 
3 1849 1852 1850 
3 1853 1851 1850 
3 1850 1854 1853 
3 1854 1850 1852 
3 1852 1855 1854 
3 1856 1857 1853 
3 1853 1854 1856 
3 1856 1854 1855 
3 1855 1858 1856 
3 1857 1856 1836 
3 1836 1835 1857 
3 1836 1856 1858 
3 1858 1840 1836 
3 1859 1860 1861 
3 1861 1862 1859 
3 1861 1863 1864 
3 1864 1862 1861 
3 1859 1862 1865 
3 1865 1866 1859 
3 1864 1867 1865 
3 1865 1862 1864 
3 1857 1868 1869 
3 1869 1853 1857 
3 1853 1869 1870 
3 1870 1851 1853 
3 1835 1871 1868 
3 1868 1857 1835 
3 1871 1835 1838 
3 1838 1872 1871 
3 1873 1874 1845 
3 1845 1848 1873 
3 1848 1851 1870 
3 1870 1873 1848 
3 1875 1872 1838 
3 1838 1842 1875 
3 1842 1845 1874 
3 1874 1875 1842 
3 1860 1869 1868 
3 1868 1861 1860 
3 1859 1870 1869 
3 1869 1860 1859 
3 1863 1861 1868 
3 1868 1871 1863 
3 1872 1864 1863 
3 1863 1871 1872 
3 1874 1873 1866 
3 1866 1865 1874 
3 1866 1873 1870 
3 1870 1859 1866 
3 1872 1875 1867 
3 1867 1864 1872 
3 1875 1874 1865 
3 1865 1867 1875 
3 1876 1877 1878 
3 1878 1879 1876 
3 1839 1840 1877 
3 1877 1876 1839 
3 1879 1880 1881 
3 1881 1876 1879 
3 1843 1839 1876 
3 1876 1881 1843 
3 1882 1881 1880 
3 1880 1883 1882 
3 1846 1843 1881 
3 1881 1882 1846 
3 1884 1885 1882 
3 1882 1883 1884 
3 1885 1849 1846 
3 1846 1882 1885 
3 1885 1884 1886 
3 1886 1887 1885 
3 1849 1885 1887 
3 1887 1852 1849 
3 1888 1889 1887 
3 1887 1886 1888 
3 1889 1855 1852 
3 1852 1887 1889 
3 1890 1889 1888 
3 1888 1891 1890 
3 1890 1858 1855 
3 1855 1889 1890 
3 1877 1890 1891 
3 1891 1878 1877 
3 1858 1890 1877 
3 1877 1840 1858 
3 1892 1893 1894 
3 1894 1895 1892 
3 1892 1895 1896 
3 1896 1897 1892 
3 1898 1895 1894 
3 1894 1899 1898 
3 1898 1900 1896 
3 1896 1895 1898 
3 1901 1902 1891 
3 1891 1888 1901 
3 1903 1901 1888 
3 1888 1886 1903 
3 1878 1891 1902 
3 1902 1904 1878 
3 1904 1905 1879 
3 1879 1878 1904 
3 1906 1884 1883 
3 1883 1907 1906 
3 1903 1886 1884 
3 1884 1906 1903 
3 1908 1880 1879 
3 1879 1905 1908 
3 1907 1883 1880 
3 1880 1908 1907 
3 1902 1901 1893 
3 1893 1892 1902 
3 1893 1901 1903 
3 1903 1894 1893 
3 1897 1904 1902 
3 1902 1892 1897 
3 1897 1896 1905 
3 1905 1904 1897 
3 1899 1906 1907 
3 1907 1898 1899 
3 1899 1894 1903 
3 1903 1906 1899 
3 1900 1908 1905 
3 1905 1896 1900 
3 1900 1898 1907 
3 1907 1908 1900 
3 1909 1910 1911 
3 1911 1912 1909 
3 1913 1914 1915 
3 1915 1916 1913 
3 1917 1918 1919 
3 1919 1920 1917 
3 1921 1922 1923 
3 1923 1924 1921 
3 1925 1926 1927 
3 1927 1928 1925 
3 1929 1930 1931 
3 1931 1932 1929 
3 1931 1930 1933 
3 1933 1934 1931 
3 1935 1936 1934 
3 1934 1933 1935 
3 1924 1930 1929 
3 1929 1921 1924 
3 1937 1938 1939 
3 1939 1940 1937 
3 1935 1933 1915 
3 1915 1914 1935 
3 1923 1922 1932 
3 1932 1931 1923 
3 1941 1942 1943 
3 1943 1944 1941 
3 1916 1934 1936 
3 1936 1913 1916 
3 1916 1915 1945 
3 1945 1946 1916 
3 1947 1948 1949 
3 1949 1950 1947 
3 1951 1952 1924 
3 1924 1923 1951 
3 1953 1954 1955 
3 1955 1956 1953 
3 1957 1958 1946 
3 1946 1945 1957 
3 1959 1918 1917 
3 1917 1960 1959 
3 1961 1952 1951 
3 1951 1962 1961 
3 1920 1919 1963 
3 1963 1964 1920 
3 1939 1949 1948 
3 1948 1940 1939 
3 1965 1924 1952 
3 1952 1966 1965 
3 1959 1960 1947 
3 1947 1950 1959 
3 1945 1915 1967 
3 1967 1968 1945 
3 1941 1944 1954 
3 1954 1953 1941 
3 1946 1969 1970 
3 1970 1916 1946 
3 1955 1964 1963 
3 1963 1956 1955 
3 1951 1923 1971 
3 1971 1972 1951 
3 1917 1920 1958 
3 1958 1957 1917 
3 1918 1961 1962 
3 1962 1919 1918 
3 1973 1974 1975 
3 1975 1976 1973 
3 1939 1938 1930 
3 1930 1924 1939 
3 1940 1915 1933 
3 1933 1937 1940 
3 1977 1978 1979 
3 1979 1980 1977 
3 1934 1916 1944 
3 1944 1943 1934 
3 1931 1942 1941 
3 1941 1923 1931 
3 1950 1949 1965 
3 1965 1966 1950 
3 1968 1967 1948 
3 1948 1947 1968 
3 1969 1955 1954 
3 1954 1970 1969 
3 1971 1953 1956 
3 1956 1972 1971 
3 1959 1952 1961 
3 1961 1918 1959 
3 1960 1917 1957 
3 1957 1945 1960 
3 1958 1920 1964 
3 1964 1946 1958 
3 1963 1919 1962 
3 1962 1951 1963 
3 1965 1949 1939 
3 1939 1924 1965 
3 1940 1948 1967 
3 1967 1915 1940 
3 1968 1947 1960 
3 1960 1945 1968 
3 1959 1950 1966 
3 1966 1952 1959 
3 1944 1916 1970 
3 1970 1954 1944 
3 1941 1953 1971 
3 1971 1923 1941 
3 1972 1956 1963 
3 1963 1951 1972 
3 1964 1955 1969 
3 1969 1946 1964 
3 1981 1982 1933 
3 1933 1930 1981 
3 1981 1930 1938 
3 1938 1983 1981 
3 1984 1985 1986 
3 1986 1987 1984 
3 1934 1988 1989 
3 1989 1931 1934 
3 1988 1934 1943 
3 1943 1990 1988 
3 1991 1992 1993 
3 1993 1994 1991 
3 1995 1996 1997 
3 1997 1998 1995 
3 1995 1998 1999 
3 1999 2000 1995 
3 2001 2002 2003 
3 2003 2004 2001 
3 2005 1997 1996 
3 1996 2006 2005 
3 2007 2008 2009 
3 2009 2010 2007 
3 2011 2012 2010 
3 2010 2009 2011 
3 2013 2014 2015 
3 2015 2016 2013 
3 2007 2017 2018 
3 2018 2008 2007 
3 1995 2019 2020 
3 2020 1996 1995 
3 2000 2021 2019 
3 2019 1995 2000 
3 2022 2002 2001 
3 2001 2023 2022 
3 2020 2024 2006 
3 2006 1996 2020 
3 2007 2010 2025 
3 2025 2026 2007 
3 2025 2010 2012 
3 2012 2027 2025 
3 2013 2016 2028 
3 2028 2029 2013 
3 2017 2007 2026 
3 2026 2030 2017 
3 2019 2031 2032 
3 2032 2020 2019 
3 2021 2033 2031 
3 2031 2019 2021 
3 2034 2035 2022 
3 2022 2023 2034 
3 2024 2020 2032 
3 2032 2036 2024 
3 2037 2038 2026 
3 2026 2025 2037 
3 2037 2025 2027 
3 2027 2039 2037 
3 2040 2029 2028 
3 2028 2041 2040 
3 2030 2026 2038 
3 2038 2042 2030 
3 2031 1975 1974 
3 1974 2032 2031 
3 2033 1976 1975 
3 1975 2031 2033 
3 2035 2034 2043 
3 2043 2044 2035 
3 2036 2032 1974 
3 1974 1973 2036 
3 2038 2037 1978 
3 1978 1977 2038 
3 2039 1979 1978 
3 1978 2037 2039 
3 2045 2040 2041 
3 2041 2046 2045 
3 2042 2038 1977 
3 1977 1980 2042 
3 1912 1911 1936 
3 1936 1935 1912 
3 1909 1912 1935 
3 1935 1914 1909 
3 1913 1910 1909 
3 1909 1914 1913 
3 1936 1911 1910 
3 1910 1913 1936 
3 1922 1921 1926 
3 1926 1925 1922 
3 1926 1921 1929 
3 1929 1927 1926 
3 1929 1932 1928 
3 1928 1927 1929 
3 1925 1928 1932 
3 1932 1922 1925 
3 2047 1982 1997 
3 1997 2005 2047 
3 1983 1999 1998 
3 1998 1981 1983 
3 1997 1982 1981 
3 1981 1998 1997 
3 1987 2004 2003 
3 2003 1984 1987 
3 2008 2018 2048 
3 2048 1989 2008 
3 2009 1988 1990 
3 1990 2011 2009 
3 2009 2008 1989 
3 1989 1988 2009 
3 2015 2014 1992 
3 1992 1991 2015 
3 1986 1985 1938 
3 1938 1937 1986 
3 1985 1984 1983 
3 1983 1938 1985 
3 2006 2001 2004 
3 2004 2005 2006 
3 2000 1999 2003 
3 2003 2002 2000 
3 2001 2006 2024 
3 2024 2023 2001 
3 2000 2002 2022 
3 2022 2021 2000 
3 2023 2024 2036 
3 2036 2034 2023 
3 2022 2035 2033 
3 2033 2021 2022 
3 1973 2043 2034 
3 2034 2036 1973 
3 2043 1973 1976 
3 1976 2044 2043 
3 2035 2044 1976 
3 1976 2033 2035 
3 1983 1984 2003 
3 2003 1999 1983 
3 2005 2004 1987 
3 1987 2047 2005 
3 1942 1994 1993 
3 1993 1943 1942 
3 1990 1943 1993 
3 1993 1992 1990 
3 2015 2018 2017 
3 2017 2016 2015 
3 2012 2011 2014 
3 2014 2013 2012 
3 2017 2030 2028 
3 2028 2016 2017 
3 2027 2012 2013 
3 2013 2029 2027 
3 2042 2041 2028 
3 2028 2030 2042 
3 2029 2040 2039 
3 2039 2027 2029 
3 2042 1980 2046 
3 2046 2041 2042 
3 1980 1979 2045 
3 2045 2046 1980 
3 1979 2039 2040 
3 2040 2045 1979 
3 1992 2014 2011 
3 2011 1990 1992 
3 2048 2018 2015 
3 2015 1991 2048 
3 1986 1937 2047 
3 2047 1987 1986 
3 1937 1933 1982 
3 1982 2047 1937 
3 2048 1991 1994 
3 1994 1942 2048 
3 1989 2048 1942 
3 1942 1931 1989 
3 2049 2050 2051 
3 2051 2052 2049 
3 2053 2054 2055 
3 2055 2056 2053 
3 2057 2058 2059 
3 2059 2060 2057 
3 2061 2062 2063 
3 2063 2064 2061 
3 2065 2066 2067 
3 2067 2068 2065 
3 2069 2070 2071 
3 2071 2072 2069 
3 2073 2074 2069 
3 2069 2072 2073 
3 2073 2075 2076 
3 2076 2074 2073 
3 2071 2064 2063 
3 2063 2072 2071 
3 2077 2078 2079 
3 2079 2080 2077 
3 2075 2073 2056 
3 2056 2055 2075 
3 2061 2070 2069 
3 2069 2062 2061 
3 2081 2082 2083 
3 2083 2084 2081 
3 2076 2054 2053 
3 2053 2074 2076 
3 2053 2056 2085 
3 2085 2086 2053 
3 2087 2088 2089 
3 2089 2090 2087 
3 2062 2091 2092 
3 2092 2063 2062 
3 2093 2094 2095 
3 2095 2096 2093 
3 2097 2098 2086 
3 2086 2085 2097 
3 2057 2099 2100 
3 2100 2058 2057 
3 2091 2101 2102 
3 2102 2092 2091 
3 2103 2104 2060 
3 2060 2059 2103 
3 2079 2089 2088 
3 2088 2080 2079 
3 2063 2092 2105 
3 2105 2106 2063 
3 2100 2099 2087 
3 2087 2090 2100 
3 2085 2056 2107 
3 2107 2108 2085 
3 2081 2084 2096 
3 2096 2095 2081 
3 2109 2053 2086 
3 2086 2110 2109 
3 2103 2094 2093 
3 2093 2104 2103 
3 2062 2111 2112 
3 2112 2091 2062 
3 2057 2060 2098 
3 2098 2097 2057 
3 2101 2059 2058 
3 2058 2102 2101 
3 2113 2114 2115 
3 2115 2116 2113 
3 2079 2078 2072 
3 2072 2063 2079 
3 2073 2077 2080 
3 2080 2056 2073 
3 2117 2118 2119 
3 2119 2120 2117 
3 2074 2053 2084 
3 2084 2083 2074 
3 2069 2082 2081 
3 2081 2062 2069 
3 2090 2089 2106 
3 2106 2105 2090 
3 2107 2088 2087 
3 2087 2108 2107 
3 2093 2096 2109 
3 2109 2110 2093 
3 2094 2112 2111 
3 2111 2095 2094 
3 2100 2092 2102 
